# .PCD v0.7 - Point Cloud Data file format
VERSION 0.7
FIELDS x y z
SIZE 4 4 4
TYPE F F F
COUNT 1 1 1
WIDTH 1514
HEIGHT 1
VIEWPOINT 0 0 0 1 0 0 0
POINTS 1514
DATA ascii
-8.6360788 -0.039445002 9.870348
-9.1675348 0.0981455 8.6477737
-8.7668333 0.1122485 9.9099493
-8.5932474 0.201125 10.470076
-8.7178802 -0.0322574 10.174541
-8.8358774 0.086695597 10.561622
-9.2266388 0.18550929 13.018414
-9.3228846 0.101733 12.742626
-9.0046749 0.1193046 14.108983
-8.9870853 0.1301191 14.030459
-8.257185 0.037156899 13.406097
-9.0394526 -0.044143599 13.344839
-8.4393568 -0.1207702 12.607618
-8.8853436 -0.059074901 12.3821
-8.9933863 0.0125875 13.082448
-8.459693 -0.3907077 10.777335
-8.5132618 -0.084884197 13.919528
-8.6573286 0.16557419 13.181476
-8.6039305 -0.4835149 10.757512
-8.9445009 0.1559983 13.285114
-8.8707142 -0.0028307 12.475665
-9.3142948 0.064018503 12.512084
-8.5261269 -0.40735549 10.770377
-8.9274235 0.1163941 13.28278
-9.0674181 0.17241061 13.319309
-8.4343395 -0.1218663 12.583967
-8.6615286 0.1598125 13.228543
-8.9198713 0.146447 13.270349
-8.3399715 -0.2328022 11.843596
-9.2872782 0.1712271 13.728271
-8.5254698 -0.4682945 10.832594
-8.4994621 -0.30144781 10.685414
-8.6661654 -0.23456161 10.936925
-8.6385412 0.1591018 13.787782
-9.0839272 0.019709701 13.981354
-8.6587229 0.1527932 13.849329
-8.4517822 -0.2098574 13.012481
-8.5312757 0.060008802 13.96758
-8.6249514 0.14399201 13.909825
-9.1507711 0.15449519 13.9165
-9.0544434 0.1409138 14.096778
-9.1338863 0.041947398 14.17757
-8.5286665 0.0086629996 13.946879
-8.540597 0.060909901 14.021286
-9.1249247 0.1523708 13.914908
-9.1029606 0.0093922 13.989111
-9.1151018 0.049858399 13.922084
-8.6959801 0.1566613 14.049228
-9.1458187 0.15302341 13.933909
-8.6391525 0.1424593 13.948393
-8.68009 0.13843679 12.347296
-8.4701481 0.1746863 12.28427
-8.4767704 0.1139111 12.426159
-8.2494736 -0.042406298 11.916966
-8.2583685 0.0597101 11.910272
-8.4781599 0.1140615 12.428756
-8.34694 0.085099801 11.79887
-8.2499809 0.095990002 11.896859
-9.3047419 0.067644097 12.176353
-8.6960249 0.1823228 12.330733
-8.7350435 0.1437632 13.049244
-8.680995 0.1837586 12.564175
-8.8560238 0.1836374 12.940574
-8.8947344 -0.0154815 12.571624
-8.3653545 -0.090526 13.354772
-9.0789137 0.17068879 14.179037
-8.4694071 -0.1294152 13.102936
-8.4469166 -0.1147385 12.624788
-8.7748899 0.1683663 13.789486
-8.5962877 0.055163201 13.423407
-8.9466133 -0.12677661 13.038421
-8.666975 0.1799517 12.542125
-8.9430742 0.1813771 12.478537
-8.3790712 0.093748704 12.199006
-9.0160017 0.1641168 12.505137
-8.578002 0.1786418 12.473873
-8.8815765 0.0238191 11.840265
-8.6964455 0.18701141 12.164213
-8.3706865 0.039513599 11.845543
-8.6549435 0.1173342 12.199167
-8.6954975 0.1874973 12.155813
-8.8579817 0.1257585 12.410735
-9.1250648 0.059038799 10.791547
-8.8404722 0.0044634999 12.320549
-8.6423435 -0.22035269 10.82363
-8.6225004 0.17558821 12.454996
-9.2607279 0.1529737 12.181578
-8.2734079 0.096720703 11.95079
-8.3994074 0.053109501 12.616643
-8.4128275 -0.0018967 12.254853
-9.2799988 0.092443302 12.064517
-9.0824499 0.048672099 12.528312
-9.4663019 0.1061739 13.349712
-9.0047379 0.1192137 14.108779
-9.1325378 0.094707198 10.904636
-8.9223623 -0.0226325 10.930281
-8.5678768 0.2003735 11.157724
-9.1049528 0.025857599 10.748479
-9.1328001 0.1587397 14.831715
-8.8021317 0.1466649 14.954672
-8.9003878 0.1179912 14.936553
-8.8902559 0.1055274 14.941265
-8.8247805 0.1077539 14.946806
-8.8573589 0.14962269 15.023834
-9.3820772 0.045563299 14.254961
-9.3852787 0.1097156 14.394093
-9.1361914 -0.0146612 14.686943
-8.8275776 0.14676461 15.031446
-9.4012461 0.1114873 14.345067
-8.8722353 0.1045272 14.94305
-8.8142853 0.1150667 14.948297
-8.8848114 0.1403884 14.739469
-8.8337688 0.091307402 14.94391
-9.1085052 0.0070312 14.649857
-9.2849607 0.1576165 14.716044
-8.8916159 0.062520199 14.935109
-9.0499945 0.14125121 14.711805
-9.0569458 0.1211802 14.759809
-9.0491104 0.1190011 14.72133
-9.0488682 0.14477471 14.755679
-8.8723249 0.1041146 14.943366
-8.891798 0.0624137 14.935332
-8.836834 0.091093898 14.945312
-9.0983648 -0.0103765 14.617382
-8.7249613 0.046136402 9.9032183
-8.6371164 0.19342139 10.113739
-8.2969923 0.15603989 9.2663193
-8.9874258 0.1065907 10.741338
-8.4676313 -0.098388702 8.7985239
-8.5548191 0.1944226 10.574077
-8.6690102 -0.0102048 9.7790451
-8.4882917 0.1907649 10.301648
-8.7060604 0.0038300001 10.119899
-8.2772179 0.057203598 9.6370735
-9.0201702 0.1041965 10.698326
-8.4850016 0.1818134 10.772084
-9.0214958 0.1043983 10.696404
-8.4795246 0.1809953 10.774882
-8.825428 0.043507699 10.60342
-8.3592377 0.072694197 10.511416
-8.6966381 -0.083754703 10.15928
-8.7346888 0.046172399 9.9066982
-8.5584297 0.1971553 10.709468
-8.064662 0.1501949 9.9871778
-8.6807089 0.16111121 14.025497
-9.0853615 0.020073101 13.967154
-9.1084738 0.1655696 14.16512
-8.8132191 0.1664864 14.104204
-8.3678284 0.0265707 13.428713
-8.9993877 0.13433111 14.102357
-9.0787706 -0.0062914002 13.902748
-8.8557863 -0.0370594 11.78089
-9.2254353 -0.0034971 11.471056
-9.2205744 0.0655398 11.510633
-8.2058058 -0.0332142 11.915345
-8.2042084 0.032966301 11.91207
-8.5831261 0.1218805 11.580734
-8.8100576 -0.048599102 11.769952
-9.218173 0.065595597 11.517068
-9.1273422 0.071939997 11.427234
-8.2070951 0.033282001 11.91544
-8.2148027 0.094983302 11.933193
-8.2089071 0.0348862 11.919224
-8.6962891 0.1869095 12.16517
-8.9155092 3.8000001e-06 11.855068
-9.0426636 0.15850329 12.294941
-9.0157967 -0.031778399 14.296647
-8.4119349 -0.52538478 10.723786
-9.0395536 0.1511102 14.624969
-8.8961287 0.1013468 14.94085
-9.3340578 0.15298431 14.355609
-9.0923615 0.1176982 14.77875
-9.1268806 0.1403984 14.764821
-8.9137363 0.15859009 14.716979
-8.8950644 0.095406197 14.842915
-8.8967314 0.11862 14.884536
-8.8981056 0.12510259 14.875673
-9.1111984 -0.0151523 14.658724
-9.4179468 0.1167754 14.414734
-7.8796182 -0.25508231 7.0866528
-7.9873781 -0.4069699 7.1501665
-7.9610181 -0.38855699 6.9756184
-8.3552809 0.048926201 9.0490475
-8.5553284 0.2042865 9.1683159
-8.5866241 0.2061951 9.1497879
-8.3083315 0.1181857 8.7229891
-8.7345495 0.20053869 10.152157
-9.2686014 0.069245197 11.999913
-8.9900389 0.17847051 12.312202
-8.3914881 0.051610202 12.618038
-8.884263 0.045250099 12.321974
-9.2702065 0.1445598 12.158362
-9.2917376 0.1246634 12.235671
-8.9283934 0.19022679 12.474833
-8.4584885 0.11243 12.433164
-8.8828735 0.0086021004 12.506205
-9.2657175 0.127315 12.177937
-9.2929611 0.080437198 12.242402
-9.0152245 0.1790632 12.225188
-8.9629164 0.1557682 12.267443
-8.6631947 0.1804322 12.532761
-8.4214048 0.041662 12.477588
-8.4707546 0.14177801 12.317584
-8.9555931 0.1326706 13.282551
-8.9654961 0.15857869 13.288517
-8.9196682 0.1365076 13.278863
-8.5010996 0.081036799 12.788475
-9.0233822 0.0178397 13.077896
-8.4670467 -0.38575259 10.828652
-8.995162 -0.035505701 13.042041
-9.3713045 0.053801201 13.024799
-9.0547714 0.1521821 12.995821
-9.0364943 -0.042842299 13.350631
-8.7818232 0.1744307 13.776423
-9.3634577 0.077123404 12.904459
-9.373127 0.053828899 13.021569
-9.0786018 0.067122303 12.992025
-8.7339535 0.1641193 13.876871
-8.6833172 0.1574941 14.13392
-8.6345787 0.074838802 14.045492
-8.5588169 0.13663819 13.87144
-8.626421 0.0048452001 13.650249
-9.2840357 0.1551308 13.835264
-9.0013132 0.1239493 14.109244
-9.0997162 -0.019797601 13.322394
-8.5265055 0.028989499 13.653353
-8.5963268 0.14131971 13.920053
-9.0753641 0.1529281 14.099792
-8.6844254 0.15896749 14.036722
-8.8835201 0.1582223 13.035541
-9.1212826 0.058704499 13.947699
-8.405323 -0.44024831 10.793077
-8.3327923 0.1037298 11.834943
-9.3597193 0.102741 12.933359
-8.973259 -0.0293402 12.575227
-8.735095 0.1734722 13.387315
-8.4508619 0.0034188 13.008263
-9.3630857 0.1200023 12.958862
-8.5866079 0.1261588 13.057165
-8.521946 -0.43680561 10.967478
-8.3494625 -0.030988 11.747452
-8.8718576 -0.00018839999 12.509165
-8.769948 0.17936151 13.139141
-8.7178144 0.176892 13.278206
-8.9288654 0.1157892 13.280308
-8.356925 -0.092459701 11.790913
-8.4052877 -0.0027083 12.452247
-8.4654942 0.054194801 13.102169
-8.9989367 0.148903 13.234569
-9.0583096 0.071770303 12.85642
-9.356699 0.080399603 12.854684
-8.4221535 -0.0015549 12.492638
-8.4712152 0.095881797 13.110836
-8.5786095 0.12817819 13.029798
-8.8480558 -0.058994599 12.589152
-9.3722029 0.1277018 13.01735
-9.4690952 0.076358803 12.519506
-9.075531 0.16738909 13.102126
-8.8870726 0.1783945 13.467496
-8.7844715 0.17722631 13.330809
-8.5115166 0.1194413 13.417526
-9.3959799 -0.016549399 13.21198
-8.9132662 0.19876491 10.938735
-9.1204672 0.039622899 10.745734
-8.7617998 0.1617298 11.075211
-8.8539972 -0.041787598 11.717274
-9.2359037 -0.0050241002 11.484113
-9.2112379 0.103014 11.484723
-9.2237988 0.066269599 11.499503
-9.2090206 0.0695187 11.412132
-8.7061319 0.18941949 12.107635
-8.3582926 0.0386579 11.772342
-8.6068964 0.116032 12.204713
-9.2177067 0.1026434 11.468824
-9.2076511 0.089194998 11.424893
-9.2327633 0.065245301 11.457948
-9.1993637 0.044211201 11.409888
-9.3008089 0.091550097 11.229843
-8.9742613 -0.030903 12.562756
-8.4348564 0.00042950001 12.31327
-8.9739504 -0.0347973 12.531679
-8.9633312 0.15602 13.292048
-8.7759066 0.1867457 12.963181
-9.5008993 -0.053370502 12.522199
-8.717104 0.18347161 12.453292
-8.7479687 0.1797995 13.114008
-8.5034533 0.12554631 13.121827
-9.1878071 0.1072599 11.164416
-8.8558512 0.201562 11.656554
-8.9110956 0.191806 11.808398
-8.8044901 0.1980693 11.773774
-9.1397448 0.0753562 11.468076
-8.9071941 0.17184719 11.382243
-8.9146891 0.0011209 11.860224
-8.3630285 -0.025319099 11.76333
-8.3717871 0.099360801 11.856419
-9.2369928 -0.0045098001 11.640958
-8.9165611 0.1765722 13.749595
-8.6791172 0.1627356 13.901341
-9.0076742 -0.036143601 13.30554
-8.412571 0.054763202 12.606782
-8.4118423 -0.0037403 12.231169
-8.9938402 -0.058018401 13.169594
-9.3040304 0.13412219 12.41028
-9.3029757 0.1343679 12.398907
-8.7884512 0.177287 13.332882
-8.9127626 0.1726141 13.295903
-8.6998825 -0.31815559 10.91316
-8.7924938 0.1729815 13.287123
-9.0458574 -0.0057881 13.36463
-8.6953497 -0.25134671 10.939261
-8.6871405 -0.259321 10.896542
-8.5106192 -0.28816789 10.773302
-8.4553413 -0.29111031 10.811815
-8.5706196 -0.33884141 10.57636
-9.0253077 0.1663579 14.409242
-8.7150621 0.1538202 14.095531
-8.5319242 0.0296377 13.654097
-8.6735935 0.14663111 12.467126
-9.0063248 0.17518289 12.250336
-8.8246164 0.1541822 12.255395
-8.8528767 0.12707099 12.37943
-8.6272354 0.1428152 12.473856
-8.7009411 0.1936264 12.207889
-8.1627197 0.031985901 11.851785
-8.8835649 0.0218165 11.816879
-8.6513138 0.1184389 12.188042
-8.1968393 0.036626302 11.900673
-8.9986563 0.1765458 12.336006
-8.9296055 -0.0122631 12.635309
-8.4224319 0.1029328 12.298082
-8.9931173 0.16493119 13.271368
-9.0187178 -0.0023365 13.086995
-9.0233545 0.017455701 13.077984
-9.3142796 0.133422 12.52354
-9.3130932 0.1026643 12.509524
-8.9533606 0.17720941 13.716639
-9.4614515 0.1067492 13.358793
-9.0012941 0.1272881 14.112221
-8.924592 0.1304426 13.273804
-9.0039806 0.179424 13.654942
-8.8818245 0.17768741 13.399806
-8.7964916 0.1762882 13.287215
-9.010438 0.1799214 13.32395
-8.9481535 -0.066754103 12.626992
-8.9967594 -0.064418897 13.12275
-8.67869 0.1726439 13.18675
-9.3363371 -0.0057755001 12.968332
-8.4536419 0.065011501 13.021206
-9.3742189 0.0026722001 13.022814
-8.9091167 0.1521073 12.435514
-8.8479729 0.1377283 12.412428
-9.2415218 0.122831 11.748013
-8.9705334 0.1523118 12.261413
-8.3267145 -0.044454601 11.904678
-8.2269287 -0.0428815 11.902359
-8.1887465 0.1036182 8.7009106
-8.9928684 0.157842 14.098468
-9.0526142 -0.064074099 14.181823
-9.1394482 0.045641098 14.221764
-8.5237341 -0.082543403 13.943119
-8.8266811 0.1624305 14.194552
-8.3631144 0.0395348 11.773147
-9.229846 0.070883103 11.476378
-8.5470734 0.020238601 14.034447
-9.4199009 0.094765797 13.277712
-9.1484814 0.1484516 13.92123
-8.9511604 0.1840051 13.654996
-8.6843739 0.15746661 14.135808
-9.2950726 0.1697413 13.798626
-9.1482973 0.1481232 13.920601
-8.9936037 0.1593706 14.091721
-8.7351942 0.1639962 13.879788
-8.667243 0.1514325 13.867566
-8.8285494 0.17982221 12.762679
-8.3727932 0.043271501 11.849237
-8.7180853 0.1818666 12.619011
-8.3652401 -0.027841499 11.829192
-9.2128057 0.1447179 12.55533
-9.3120661 0.086057298 12.532455
-8.8896809 0.14384291 12.948597
-9.3029184 0.088846996 12.438118
-9.3144836 0.085145801 12.527154
-9.3193226 0.033811901 12.482228
-8.8908386 0.1434328 12.944435
-8.5491514 0.1955618 10.89946
-8.7496986 -0.020098399 10.462651
-8.7810888 0.035003401 10.539134
-8.7806225 0.016756199 10.545414
-9.0562601 0.1085243 9.9666586
-9.0584831 0.1079025 9.9598284
-8.6251812 0.19944321 10.735622
-8.8487034 0.13004149 10.838508
-8.6241102 0.2013731 10.724704
-8.7098484 0.1954022 10.848827
-8.6942892 0.15480401 10.635606
-8.68046 -0.31840199 10.873525
-8.6829033 -0.26465529 10.899248
-8.8911066 -0.017533001 12.568779
-8.588871 0.010668 13.654662
-8.6853619 0.1493064 13.906008
-8.6936779 0.147375 13.926483
-8.981761 0.16426881 13.988843
-8.6514158 -0.0044046999 13.682216
-8.9788818 0.1687606 13.942028
-8.4326181 -0.2294042 13.058861
-9.1450253 0.1010879 13.920253
-8.9877882 0.1640345 14.405192
-8.2043428 -0.033155899 11.912359
-8.2099333 0.095054001 11.925936
-9.239995 0.092816398 11.970421
-8.8484726 0.1379748 12.411501
-8.858573 0.12655219 12.40593
-9.2508144 0.083186097 11.949523
-8.7927494 -0.028371301 10.716024
-8.7769241 -0.0033162001 10.727434
-9.169116 0.032311101 10.847342
-9.1714725 0.034536298 10.775078
-9.170064 0.035323001 10.775049
-8.5247955 0.064069897 13.950247
-9.4022312 0.082478501 13.357018
-8.4004717 0.0520913 12.589964
-8.9184656 0.17151099 13.789011
-8.905735 0.1241605 12.956603
-8.8849735 0.1752609 12.910144
-8.760663 0.1651403 13.796361
-9.1310377 0.0210688 13.089518
-8.6839256 -0.32294369 10.872338
-8.9145832 0.174556 13.750216
-8.4566612 -0.13348819 13.064542
-9.0448427 -0.0063053002 13.365371
-8.8030167 0.16150691 14.142836
-8.5087814 -0.44146481 10.727916
-8.5127373 -0.4127481 10.728047
-8.6786709 0.1610685 14.023601
-8.9802551 0.16460989 14.40483
-8.6792145 0.1610032 14.023225
-8.9934483 0.0309777 13.051337
-8.7710123 0.1688195 13.781375
-8.9859915 0.1590907 14.078104
-9.3746719 0.054431599 13.046634
-8.8132591 0.1684964 14.151345
-9.1538019 0.0338865 10.807033
-9.0069141 0.1108519 10.545023
-9.0078735 0.1105407 10.537215
-8.5880556 0.19684879 11.169921
-8.578021 0.1940023 11.282656
-9.0202322 0.16347811 10.840949
-9.1235294 -0.0045614 10.761683
-9.1526222 0.086416498 10.898821
-9.0186157 0.1636471 10.844243
-8.1388254 0.1419431 10.360519
-9.0949564 0.1013681 10.211389
-8.7419958 0.149009 10.541097
-8.5284462 0.1956237 10.595514
-8.4928751 0.1865312 10.541742
-7.9637418 0.1339286 10.233076
-8.1377296 0.1420396 10.359573
-8.7228165 0.158153 10.659322
-8.6665888 0.2013935 10.534133
-8.4297438 0.1772678 10.586596
-8.8661728 0.18462931 12.626044
-8.4100351 -0.040543798 12.403198
-8.4107733 0.0861587 12.46027
-8.9178886 0.17147911 12.417498
-8.8229008 0.179548 12.757469
-8.7039366 0.1821737 12.622254
-8.7376375 -0.023069501 10.534451
-7.9438138 0.0815451 9.7785025
-8.026967 0.14708561 9.8971052
-8.0878553 0.078747198 9.8741856
-8.9648056 0.1578791 13.289918
-8.7844391 0.17656431 13.334225
-8.3910942 0.087473899 12.771183
-9.3944712 -0.017101901 13.211048
-8.9289885 0.1770917 13.394441
-9.2335329 0.1089073 11.639812
-8.8693552 0.0106571 11.751407
-9.2327194 -0.0043454999 11.573779
-9.1136456 0.089557998 11.447199
-8.6265669 0.193409 11.864517
-9.1424484 0.067064397 11.446531
-9.231842 -0.0036221 11.651765
-9.235342 0.1087181 11.635409
-9.2328634 -0.0044896998 11.57404
-9.1374426 0.074656002 11.457487
-8.6153755 0.1590924 11.799255
-8.6811256 0.19226331 11.809331
-9.1499672 0.1221692 10.863031
-9.2209015 0.065434001 11.476808
-8.760725 0.1583894 11.361783
-9.2155943 0.086973101 11.440797
-8.7473211 0.0107465 10.821095
-8.7040787 -0.100597 10.710985
-8.7831669 0.1773265 13.328491
-8.635745 0.1672325 13.365473
-9.0696955 0.16411731 13.128302
-8.9941349 0.16583531 13.26716
-9.3657074 0.1202818 13.032371
-9.0059023 0.1783884 13.335093
-9.144084 0.073738404 10.595701
-8.7718582 0.18323191 11.076039
-8.5207014 0.1927117 11.050476
-8.5177851 0.19382469 11.166865
-8.4034004 0.1763196 11.100071
-9.0155144 0.2005278 10.858772
-9.0071001 0.1833217 10.792084
-9.006052 0.1619672 10.801228
-8.585475 0.1504728 11.761212
-8.7423172 0.1942683 11.697015
-8.9290514 0.1911888 11.541305
-9.0680599 0.14338399 11.153027
-9.0077353 0.164221 11.170139
-8.8558235 0.1943258 11.64715
-8.7426071 0.1936696 11.700208
-9.0090914 0.1390197 11.171023
-8.5946579 0.17366651 11.771601
-8.7615404 0.194786 11.687585
-8.6165495 0.1192692 11.72816
-9.2248802 0.064763702 11.469799
-9.510253 0.073446102 12.520617
-9.0814257 0.062983602 13.078188
-8.7797375 0.18111341 12.985585
-8.4028225 -0.0446782 12.423537
-8.4541359 0.0039363001 13.012699
-9.0767431 0.16787501 13.095768
-8.8456593 0.1783327 12.962645
-8.4168301 0.055505201 12.650698
-8.9196148 0.14788149 13.270327
-8.2637491 0.042418499 11.918857
-8.5153828 -0.24250729 10.607553
-8.5359688 -0.27712381 10.755543
-9.138401 0.1011167 10.894499
-9.1198463 0.096700802 11.357044
-8.6474171 -0.17073131 10.927896
-8.9099483 0.18172321 11.744465
-8.9575262 0.1860889 11.760084
-9.2107 0.052802101 11.412114
-8.8606167 0.1937414 11.699901
-8.9437742 0.176092 13.530214
-8.461792 0.0039662998 13.093868
-8.6539316 0.070927501 13.642557
-8.6538601 0.1626846 13.698118
-9.2899208 0.13463511 13.270295
-9.2803192 0.14572661 13.276677
-9.0221853 -0.0127034 13.077891
-8.5022326 0.1097331 13.122118
-8.4386702 0.054101098 13.012032
-8.4209747 -0.095150203 12.470739
-8.7142963 0.1408361 13.266322
-8.7846842 0.1798753 13.187163
-9.0357018 0.059233502 12.71755
-8.4689608 0.0560873 13.104558
-9.2211161 0.1570982 12.992133
-8.8923273 -0.018089799 12.564672
-9.3236322 0.1082487 12.724491
-8.9195318 0.14775521 13.270305
-8.8502626 0.18374871 12.924037
-8.7453194 0.18262351 13.092405
-8.6810598 0.18627229 10.593524
-8.6231451 0.19876701 10.736423
-8.5652189 0.2031607 10.653914
-8.6917572 -0.1088067 10.230042
-8.6915798 -0.1095428 10.226255
-9.0074816 0.14468209 10.783405
-8.6320257 0.2000522 10.067047
-9.0499668 0.0850982 9.8858261
-8.7223425 0.086204603 9.7081833
-8.6384935 0.18736009 10.106327
-8.0347557 0.15286011 9.2931995
-8.286972 0.1807164 9.5491152
-8.217207 0.065542303 9.5616074
-8.5977983 0.2012177 10.092949
-8.6702929 0.0091848001 9.7446356
-9.0582237 0.087293603 9.8684072
-8.5981579 0.20086759 10.095616
-8.458415 0.18816461 10.269486
-8.7782717 0.1876208 10.164227
-8.0792675 0.124414 9.9111872
-9.0197277 0.090465099 9.8028889
-9.0431709 0.1079762 9.9426298
-8.0781908 0.1256132 9.90944
-8.0029373 -0.0154111 8.6411524
-7.9955902 0.1592232 9.2131176
-7.3990412 0.097686097 8.8797827
-7.5687222 0.057160798 8.9662838
-8.0018864 0.1767126 9.167594
-8.2312908 0.1643735 8.9200277
-7.9599247 0.1525472 9.2258701
-7.8620219 0.1423343 9.1777344
-8.2754049 0.1677306 8.9767179
-8.2948666 0.1529513 8.9041109
-7.3856068 0.097357199 8.8726597
-8.1430244 0.1907766 8.8282785
-8.9449139 0.2046921 9.9632692
-8.961688 0.0438237 9.7904062
-8.5690928 0.19797739 10.569844
-8.435214 0.1816745 10.323326
-8.4814272 0.1831685 10.699205
-8.5868139 0.2007903 10.606878
-8.4882545 0.18528999 10.624762
-8.6989708 0.1625707 10.649796
-8.4314919 0.1817954 10.315184
-8.9723768 0.0554942 10.389315
-9.0212326 0.087321497 9.5967226
-8.4336329 0.0535313 10.18807
-9.1178799 0.088414699 10.241994
-9.1192627 0.1034887 10.500883
-8.8465376 -0.0263942 10.883201
-9.2386179 0.1496 11.02107
-8.769516 0.1966033 11.470819
-8.6095572 0.1507882 11.541703
-8.7897005 0.1419369 11.483685
-9.0021286 0.1144427 10.915041
-9.0064716 0.1125657 10.899595
-8.7129383 0.1824999 10.845376
-8.4261189 0.1748205 10.723809
-8.530611 0.1888025 10.840988
-8.371419 0.1715634 10.778393
-8.991704 0.064264797 10.412078
-8.7125349 0.1822509 10.847212
-8.5490255 0.19582219 10.898397
-8.4638386 0.17915671 11.002992
-8.717865 0.155662 10.762463
-8.4635248 0.1791189 11.002095
-8.6329241 0.198595 10.871236
-8.6855316 0.20133559 10.761292
-8.3739939 0.1722403 10.714614
-8.9966106 0.1568408 10.118296
-8.0487099 0.1339716 9.5838947
-8.6846218 0.20535789 10.720216
-9.0995932 0.026812401 10.75729
-8.6582899 -0.074075803 9.9336596
-9.0121975 0.1334063 10.775163
-8.0005255 0.1485872 9.6586075
-8.6721373 0.1632183 10.81361
-8.6665859 0.1990325 10.697093
-8.4077959 0.1747954 10.568239
-8.5010977 0.17950059 10.673186
-8.1342554 0.16316301 10.362704
-8.4548674 0.1769474 10.80771
-8.97927 0.15493269 10.541632
-9.0670967 0.1096942 10.464499
-8.4247589 0.1811032 10.295457
-8.7632313 0.060724702 10.044631
-8.7438583 0.17121521 11.050202
-8.7307835 -0.024987699 10.220157
-9.0109234 0.14467441 10.775035
-8.6775103 0.2002885 10.576518
-8.4564562 0.0045896 13.071835
-9.3970194 -0.018075099 13.2121
-9.2026033 0.1737982 13.240494
-9.2752848 0.14391799 13.278914
-9.4025412 0.092014298 13.268898
-8.7650623 0.1772241 13.614307
-8.4492083 0.0653264 13.001421
-9.3239431 0.1081282 12.72447
-8.7644901 0.17737439 13.612569
-8.4502096 0.065083504 13.003428
-9.3698063 0.053729098 13.082521
-8.3636723 0.0261804 13.423342
-9.371809 0.052986499 13.021436
-9.3190012 0.1007436 12.482608
-8.9951925 0.1657567 13.265955
-8.2544155 0.0365532 13.40677
-8.6255684 0.13022611 11.779268
-8.8037462 0.1967572 11.784333
-8.8239307 -0.0214775 10.878722
-8.9658289 0.068279497 11.783833
-8.6474152 0.1924666 11.862711
-9.1530142 0.1206289 10.855592
-8.785861 0.19626459 11.722731
-8.5711031 0.1207858 11.779261
-9.0983572 0.1066984 10.241314
-8.9678717 0.0595912 10.407792
-8.4232769 0.17566501 10.800511
-9.3081741 0.1468887 13.27832
-9.3639345 0.16345461 13.000918
-9.0217724 -0.0671454 13.104083
-9.1225691 0.0401535 10.770581
-8.7726002 0.201239 11.10583
-8.5861092 0.1976961 11.15541
-8.5210323 0.1924721 11.051504
-8.3752012 0.17582209 11.101305
-8.4390182 0.1879527 11.151494
-9.024888 0.2010857 10.89432
-9.0258627 0.1637439 10.902339
-8.8917332 0.1980893 11.046902
-8.8614531 0.1957446 11.049578
-9.048707 0.027780799 10.360497
-9.1210203 0.074972697 10.616082
-8.4215574 0.1720982 10.937585
-9.1166725 0.064188004 10.54854
-8.7143841 -0.0510353 10.218894
-8.7030249 -0.031900801 10.166356
-8.7036943 0.17147569 10.747265
-9.0526381 0.1623726 10.168585
-9.0769567 0.1003388 10.103421
-8.4857149 0.1864631 10.622097
-8.5866785 0.198825 10.616719
-8.642808 0.1999258 10.521198
-8.0955591 0.1516206 10.048583
-8.7876911 0.050239898 10.285491
-8.0667048 0.1526728 9.9931908
-8.4602747 0.1761591 10.76362
-8.4207373 0.1748801 10.574891
-8.6845522 0.1993217 10.774506
-8.6347427 0.1998032 11.164873
-9.1285944 0.094154902 10.307319
-8.8076172 0.0187803 10.596135
-8.7534208 -0.0369142 10.754904
-8.7334824 0.1980489 11.22206
-9.1479263 0.074228898 10.590251
-8.8766003 0.1980979 10.95491
-8.8875694 0.1118772 10.813881
-8.4729557 0.1847602 11.031384
-8.5215893 0.1922535 11.053511
-8.5672903 0.1979143 11.213376
-8.4024858 0.1764245 11.098927
-9.0254841 0.1638113 10.903186
-8.6111794 0.1684259 13.423231
-8.3090801 0.0393009 13.389246
-8.65446 0.1600673 13.886371
-8.4496574 0.1016758 12.383569
-8.5581264 -0.30914509 10.68319
-8.4438286 -0.29877639 10.767309
-8.6100187 -0.34170061 10.848275
-8.7685394 0.17324591 13.827653
-8.6255903 0.056474201 13.456615
-9.059411 -0.040419899 13.364181
-9.4007473 0.1101527 13.324433
-8.8765163 0.1692213 13.946434
-8.7335644 0.1647779 13.875494
-8.7979355 0.1612332 14.045126
-8.7968016 0.16263001 14.062075
-8.6292191 0.092909403 13.673239
-8.6839895 0.16130771 13.910432
-8.8587589 0.1267125 12.405154
-8.1992426 0.0335567 11.906181
-8.6955233 0.18802869 12.160615
-8.7146692 0.1009759 9.4395475
-8.5997467 0.2023513 10.373248
-8.4755688 0.1817036 10.354603
-8.223053 0.1685742 8.8547802
-8.7099438 0.1005171 9.6672449
-9.4673681 0.0722069 12.518229
-8.4498949 0.109252 12.398851
-8.460887 -0.3549107 10.763153
-8.4139519 0.056595299 12.629657
-8.3488703 0.038212702 11.775607
-8.8530951 0.026677299 12.400549
-8.4226484 0.051137902 12.635793
-8.4426384 0.0530577 12.893929
-8.723938 0.1782247 12.529418
-9.2918148 0.071058601 12.203798
-8.9125395 0.1188389 12.991737
-8.9576054 0.0634358 12.44441
-9.2428942 0.067735203 11.57117
-8.6708431 0.1509774 13.22069
-8.4543571 0.0040977998 13.015096
-9.3712502 0.052731801 13.02136
-8.4627962 0.0041415999 13.096665
-8.4532852 0.065669201 13.004534
-9.0660601 0.1718507 13.323203
-9.0055733 0.1785492 13.335156
-8.9316998 0.1170266 13.256688
-9.3648367 0.1548758 13.017056
-8.7161102 0.13972379 13.265948
-8.6722155 0.1503845 13.237095
-8.961401 0.1554644 13.295534
-9.0640249 0.080424197 13.086993
-8.5924635 0.16927581 13.080621
-8.4506187 0.0057406998 12.339301
-9.3615351 0.1016187 12.929407
-8.9513588 -0.074102901 12.574553
-9.0662766 0.080339901 13.076903
-8.9121847 -0.058396701 12.490764
-8.9307823 0.116906 13.257812
-9.3207541 0.129206 12.732464
-9.0102158 0.179842 13.473382
-8.629178 0.1652711 13.480208
-9.1048489 0.066612601 10.564653
-9.1393747 0.075547501 11.468204
-9.2247524 -0.0026670001 11.516337
-8.9045134 0.057394899 11.814918
-8.6261244 0.1436379 11.663808
-8.5936985 0.1471826 11.785464
-8.6069775 0.1700469 11.800088
-9.2149487 0.1264573 11.455409
-8.6028347 0.0108336 13.66801
-8.5337086 0.0095902001 13.948318
-8.6453419 0.14274029 13.885293
-9.3929529 0.050280701 13.27162
-9.074441 0.1552304 14.101646
-8.6786461 0.15558051 14.186887
-9.0173903 0.1680703 14.239156
-8.6756887 0.14829101 14.200118
-8.3763504 0.027010599 13.44411
-8.9982224 0.1335867 14.114473
-8.6399803 0.1407617 13.950371
-9.109848 0.1668095 14.15684
-8.83424 0.1690229 14.158609
-9.1997604 0.1073177 11.14504
-8.5850792 0.1684491 11.795736
-8.7999048 0.19767649 11.639082
-8.7703123 0.1848097 11.468537
-9.1656246 0.093487702 10.831323
-9.137249 0.1185482 11.518687
-8.6530027 0.162955 13.696798
-9.0643492 0.167383 13.332269
-9.2504654 0.1413839 13.34302
-9.4786186 0.075745396 12.5853
-8.4639044 0.0052868999 13.09809
-8.440279 -0.075044602 12.978957
-9.2690754 0.1431057 13.295958
-9.229804 0.1807671 13.179571
-9.3893042 -0.0152411 13.288355
-9.3871117 0.046797499 13.224467
-9.3742485 -0.087839097 13.021676
-9.4718866 0.073531702 12.509345
-9.0238323 0.17791639 13.320242
-8.9929237 0.1637926 13.274962
-8.462554 0.1079815 12.694654
-9.0239954 0.0020081999 13.122502
-8.4663525 0.1096261 12.704209
-8.9277039 0.1168479 13.276464
-8.4293404 0.052314699 12.86042
-9.3659382 0.1639154 12.998736
-9.2708597 0.1444234 12.022468
-9.2440681 0.1020289 11.947225
-8.6012545 0.1166059 12.173597
-8.3684721 -0.088286102 11.830708
-8.3648319 0.099909499 11.841623
-8.4155703 -0.0414274 12.464091
-9.2963352 0.072269 11.986324
-8.8370667 0.18476149 12.383735
-9.0620852 0.1075509 9.9074802
-8.5991354 0.200782 10.401114
-8.7385893 0.014108 10.188202
-9.0521641 0.095138296 9.9244652
-8.6321592 0.2014194 10.062279
-9.0901432 0.089562699 10.087108
-8.7740383 0.091619499 10.177326
-8.6787195 0.0019094 9.8300915
-8.1191835 0.1571314 9.986165
-8.4622803 0.2015636 9.8249416
-9.0196123 0.1874788 13.390854
-8.5545263 0.1431586 13.41098
-9.0839233 0.1557768 13.32813
-9.3035946 0.075019397 13.306141
-9.3624601 -0.0582266 12.918282
-9.2343616 0.1819717 13.174057
-9.393754 0.050558802 13.273188
-9.3752871 0.0038697 13.085262
-8.4495678 -0.071643502 12.990182
-8.4611454 0.0036645001 13.092701
-8.552062 0.1451149 13.405299
-8.539546 0.1291651 13.404572
-8.5315332 0.1023666 13.370175
-9.2829943 0.14845321 13.285644
-8.4524784 0.0082051 12.340191
-8.9346466 0.037323501 12.440165
-9.0605173 0.062479701 13.089637
-9.0639067 0.061954599 13.08055
-8.8826561 0.16455141 12.877023
-8.9343863 0.037465099 12.435168
-8.7321482 0.1212323 13.019211
-8.3514118 -0.0299109 11.747149
-8.5895157 0.1676029 11.806415
-9.2277899 0.1100893 11.509411
-8.622385 0.1286643 11.768299
-8.7703562 0.1827447 11.479293
-8.8475409 0.18591949 11.456608
-8.6111689 0.1608889 11.752243
-8.9132528 0.1592485 13.24859
-8.4639549 0.064690404 13.104536
-9.0703983 0.1751785 13.144346
-8.9153681 0.1773719 13.735923
-9.3666105 0.051791701 13.320465
-9.3526564 0.1510338 13.304673
-9.3593998 0.0527035 13.341984
-8.6807299 0.1261472 13.028618
-8.404851 -0.0035556001 12.232981
-8.60149 0.16632929 13.072514
-9.0376816 0.1151039 10.783514
-9.1237507 0.061879002 10.742142
-9.1134806 0.1205343 10.937455
-9.147748 0.074427299 10.847899
-9.1633148 0.037215199 10.799
-9.1113319 0.017890099 10.694573
-9.0075531 0.13131329 10.764669
-9.1256847 0.038078099 10.736764
-8.5940838 0.160625 11.549146
-8.7692642 0.18322881 11.491107
-8.7622604 -0.038380601 8.8692331
-8.1937065 0.10354 8.7192326
-8.1069794 0.14718349 9.6524649
-8.2441683 0.1739701 8.976655
-8.5500326 0.1790759 9.1895332
-7.9970574 0.1658604 9.2190361
-7.3909359 0.1872254 9.4287395
-7.3533711 -0.032857999 9.5157871
-7.9505982 0.1611959 9.1492701
-7.329092 -0.019803399 9.5217915
-7.1916084 0.027556101 9.5183144
-7.1615248 0.0168285 9.5183849
-7.2905312 -0.012237 9.5235004
-7.9790964 0.1577031 9.1689482
-7.0067897 0.1641224 9.6326008
-7.1678758 -0.068744801 9.5051622
-7.2554345 -0.0153809 9.5478268
-7.239399 -0.030639101 9.5221701
-7.2858052 0.037050299 9.5073214
-7.2933011 0.032968398 9.508255
-8.0486345 0.16427089 9.0716753
-7.5075207 0.1868536 9.4028635
-7.3537354 0.0243787 9.546443
-7.150969 -0.035703801 9.5525284
-7.5699949 0.1894926 9.4370098
-8.6024332 0.19955911 10.523081
-8.0997143 0.15601359 9.6295757
-8.1033201 0.1528752 9.6334257
-9.0561695 0.1007052 9.9543552
-8.2072792 0.1751125 10.245275
-8.1519756 0.14156491 10.379936
-8.2841015 0.1735739 10.457944
-8.8066988 0.089593999 10.604083
-8.9905901 0.036738001 9.6805124
-9.1001329 0.1077167 10.238794
-8.3557758 0.0845773 10.199953
-8.6649208 -0.0082007004 9.7672834
-8.1710968 0.14270081 10.341249
-8.1666803 0.1426613 10.335709
-8.1975136 0.17038161 10.301579
-8.4334507 0.1800056 10.48493
-8.4111729 0.17963339 10.345486
-8.6893845 0.1590362 10.632081
-8.6730461 0.1872786 10.523347
-6.9792085 0.1652354 9.649848
-4.4870229 -0.3160229 9.3625593
-4.4900012 -0.022139899 9.4831429
-6.8364344 0.091872796 9.0182571
-7.154274 0.0094852 9.5042086
-7.3886738 0.150619 9.1074896
-6.9204025 0.0139232 9.5550489
-7.1778979 0.030648001 9.4889984
-7.3847208 0.150185 9.1054592
-7.2435856 0.19498789 9.2024689
-7.2220249 0.1854798 9.5112314
-7.1075392 0.168079 9.6672382
-6.8306336 0.051217999 9.7768698
-7.1969938 0.1894592 9.2049437
-7.2060714 0.053371001 9.5513582
-7.1612606 0.1832642 9.0835104
-6.3257871 0.0117214 8.9344158
-7.1184225 0.17113221 9.6308355
-6.3502712 -0.1232161 9.6172781
-6.8611541 0.0626828 9.5615377
-7.1032758 0.1143747 9.0048313
-6.9732628 0.16480491 9.6353054
-6.5850277 -0.0124651 9.6072636
-6.4118824 0.1638535 9.5233269
-6.9738278 0.17993569 9.4789286
-7.1553998 0.1854247 9.4295864
-9.0868893 0.0205089 10.045876
-9.0860271 0.1292886 10.052038
-8.1928473 0.17394841 10.212499
-8.0742598 0.15064541 10.094425
-8.4571543 0.1855302 10.387772
-8.3737679 0.1754775 10.395528
-8.3751411 0.1769986 10.226476
-9.064765 0.0022503999 10.018197
-8.4313259 0.1828247 10.315658
-7.9030623 0.099766999 8.9600248
-7.8647785 0.1000743 8.961894
-9.1329298 0.084690601 8.6108837
-8.3053627 0.1651877 8.9182529
-8.419652 0.2079245 8.9519863
-8.3401546 0.1186771 8.7298765
-9.1301403 0.084497899 8.6162004
-8.4375219 0.20574459 9.0656328
-7.9795966 0.1137875 8.9378862
-8.0258484 0.18259209 8.9508085
-7.962091 -0.3484965 6.9568133
-8.3092241 0.17635471 8.9908409
-8.0172882 0.1061018 8.8363495
-8.3105536 0.1648214 8.9435358
-8.4367943 0.1212779 8.7382812
-8.206048 0.1043521 8.760251
-8.3198729 0.045169801 8.4427652
-8.0148544 -0.0192516 8.8111019
-7.8548527 0.14495049 8.9555922
-8.0389881 0.176357 9.0532703
-7.9023871 0.0123916 8.9539194
-8.2639341 0.199187 9.2853565
-8.7565756 0.1450662 8.883769
-9.0707436 0.0114341 9.9166327
-8.4583788 0.1832902 10.458704
-8.3997335 0.17460421 10.563905
-8.7355461 0.1710113 10.646067
-4.8072667 0.1214492 9.5266151
-4.6173563 -0.0497435 9.713213
-4.7066393 0.1305823 9.5305109
-4.8119411 0.0881771 9.6572218
-4.5821986 -0.0072022001 9.3443851
-4.5206122 -0.1127799 9.4389811
-4.5844765 -0.049426101 9.6743975
-4.5944448 -0.0840967 9.669569
-3.8960009 0.0020385999 10.802291
-4.8171802 0.1361084 9.5311613
-4.8191714 0.1160745 9.682703
-4.5759492 0.085373901 9.4463654
-4.5927496 -0.036882099 9.6103983
-4.7914619 0.1018724 9.9094524
-4.8140955 0.1158308 9.6849861
-8.7036276 0.17909651 10.722527
-8.9838896 0.070097402 9.7349014
-8.8236179 0.0915429 10.590989
-9.071538 0.0986178 10.112427
-8.1216249 0.15541311 9.9795523
-7.989872 0.1020656 10.027739
-9.1212616 0.091375999 10.04226
-8.8055315 0.0022362 10.180833
-8.7245455 -0.0152428 10.236949
-7.9520392 0.1569782 9.1783981
-8.0053082 0.1585951 9.2189379
-8.2717237 0.16820361 8.9589415
-8.3199711 0.1869026 8.749733
-7.7206888 0.0216606 8.9705915
-8.0049791 0.1637934 9.2043524
-7.695796 0.094714202 8.9561548
-8.475316 0.1445635 8.9295864
-7.7279444 0.1430566 8.9832411
-8.3708858 0.1714437 10.777801
-8.4412012 0.1749177 10.934866
-8.4881964 0.18157031 10.779245
-8.5377645 0.19581629 10.773292
-8.4662056 0.1772282 10.870943
-8.5459566 0.1976774 10.88879
-8.3716574 0.1725599 10.707983
-8.1687937 0.16274931 10.723582
-8.6800776 0.1984635 10.596794
-8.5149803 0.18912929 10.643932
-8.5600901 0.19657271 10.720259
-8.513092 0.1896909 10.638941
-8.592885 0.1983989 10.73205
-8.5754433 0.1972166 10.717653
-8.4204502 0.17304879 10.923314
-9.0664072 0.058244601 9.6408014
-8.9940691 0.0311085 9.671916
-8.6957579 -0.018294699 10.112596
-8.3681059 0.17655709 10.218896
-9.0457487 0.0052069002 9.6542892
-8.490366 0.1937267 10.287074
-8.490531 0.1924966 10.292852
-8.1372194 0.142657 10.359628
-8.5535698 0.1971523 10.564676
-8.7132864 0.030228499 9.9155216
-9.056344 0.1138458 10.176451
-8.1706028 0.16253971 10.341612
-8.7116909 0.1588162 10.877159
-7.9974651 0.1422022 10.339224
-8.7134266 0.1596047 10.870317
-8.7995501 0.064362198 10.601468
-7.9669995 0.1125729 9.8288946
-8.627697 0.1972193 10.748236
-9.1028299 0.105827 10.23427
-8.6511469 0.20256519 10.581736
-8.6669197 0.1988664 10.6987
-8.5749569 0.1940019 10.73633
-8.3910961 0.044600599 8.3777933
-8.1955643 0.2008601 8.9791508
-8.0573444 -0.1300213 7.3226137
-8.0347061 -0.1983128 7.1806335
-7.9878817 0.20713431 9.0072393
-8.0188961 0.0145926 8.7955351
-7.7568874 0.094955496 8.9554672
-8.0007782 0.1702047 9.2199516
-8.2684975 0.1655058 8.963294
-8.2978573 0.17687009 9.0214882
-7.7757545 0.096670799 8.9689398
-8.0119534 0.1661455 9.2187176
-8.0090046 0.033229001 8.8021727
-8.0280294 0.19599921 9.0522194
-8.0071554 0.0299975 8.7180986
-8.6917934 0.1744414 9.5412912
-8.8413181 0.020750999 8.881918
-8.0152349 0.1370476 8.8331003
-8.6962471 0.2066915 9.5731316
-9.0946884 0.1691246 9.2416859
-8.6541834 0.1781577 9.5211992
-8.6813354 0.1659693 9.4481354
-8.2238064 0.067168601 9.5758486
-8.6388674 0.19293571 9.5179653
-8.6764183 0.1655688 9.4782181
-8.7904348 0.018885801 8.8999653
-8.5981321 -0.073250003 9.7606621
-8.6502876 0.0117719 8.8899441
-8.986146 0.1568557 10.53031
-8.4682302 -0.093365103 8.8293171
-8.646944 0.0864636 8.9061947
-8.3643007 0.071524501 9.324707
-7.2962222 -0.071006797 9.5257931
-7.2345495 -0.0116804 9.5311565
-7.1840386 0.1667473 9.6831312
-7.4094791 0.1903547 9.4507542
-6.9241142 0.0243176 9.5311794
-7.5525651 0.1924783 9.34863
-7.1209073 -0.043448001 9.6249771
-7.4494662 0.0698229 9.5819521
-7.9417586 0.1448032 9.2096624
-7.4466667 0.042534899 9.5763483
-7.0996237 0.16913541 9.6541901
-7.3006439 -0.0251325 9.6219091
-7.8651247 0.1552719 9.2032795
-8.5488634 0.0072976998 8.8737335
-8.5506105 0.0053237998 8.8553286
-8.5495224 0.0092099998 8.8903399
-8.6429176 0.088775203 8.9457779
-7.9809427 0.1182885 9.5494928
-8.4959669 0.19187909 10.388482
-8.6234369 0.20192461 10.513497
-8.7202663 0.040640499 9.9268446
-8.6915569 0.15991861 10.626845
-8.737298 0.017402999 9.8043938
-8.1692991 0.054261699 10.319072
-8.9468975 0.1058315 10.265521
-8.4958401 0.191107 10.391747
-8.6845055 0.19913781 10.775053
-8.620697 0.19998731 10.512878
-8.6199198 0.19901811 10.517041
-8.5305185 0.19791269 10.697718
-8.7420778 0.035126399 10.204299
-8.4965973 0.1990739 10.306669
-8.7259655 0.0165696 10.222939
-8.4307213 0.1721974 10.601768
-8.2424908 0.1722575 10.69108
-8.5331812 0.1975648 10.752968
-8.4905396 0.1858869 10.63069
-9.0909939 0.078698799 10.479236
-8.0895548 0.15174679 10.041009
-8.0610199 0.1313086 9.8875208
-8.6421423 0.20011111 10.526542
-8.673749 0.1843573 10.423314
-8.4868994 0.1828322 10.697329
-4.6027274 0.080259897 9.6924295
-4.5912395 -0.0215893 9.4830551
-3.651479 -0.0122435 10.748634
-4.6037154 0.0048471 9.6353912
-5.6275768 0.1464754 9.4316711
-5.0049272 -0.1498289 9.1388016
-5.5688906 0.1332788 9.7401218
-5.687675 0.1475932 9.577096
-8.5306053 0.1978226 10.701138
-5.9786425 -0.030115901 9.6014452
-5.7973166 0.0609328 9.6660452
-6.2219262 0.16541819 9.4208622
-5.6381154 0.0205076 9.1760244
-6.2532015 0.16344909 9.4188576
-4.9509835 0.1204677 9.4451189
-4.5730853 0.025938399 9.3164215
-4.7941685 0.1049472 9.9021444
-4.8135509 0.1050348 9.6760063
-4.7935014 0.097432502 9.6591454
-3.9189081 -0.1143373 9.0956516
-4.5968575 0.0368108 9.7676277
-4.5939255 -0.039747801 9.9330416
-4.5783405 0.0165402 9.8533506
-8.643158 0.2009173 10.5662
-8.4900408 0.1848108 10.628083
-8.0341778 0.15012249 10.112
-8.4894037 0.1828016 10.699666
-8.4078302 0.1749451 10.568741
-8.3686743 0.17014331 10.739766
-8.3504391 0.1708532 10.759328
-8.989089 0.063575499 10.413187
-9.0933895 0.1028037 10.247831
-8.1247978 0.142113 10.348428
-8.8848 0.066726103 10.550041
-8.5347404 0.19676749 10.544456
-8.7606249 -0.037095498 8.8839865
-8.6483707 0.086526498 8.9129143
-8.6479387 0.20829619 9.5011301
-8.2846546 0.1509908 8.8862791
-8.6416101 0.17288931 9.505127
-8.6428785 0.1980944 9.4878664
-8.3079185 0.1712805 8.9671783
-8.296277 0.1732686 8.9414005
-8.6528006 -0.0379108 8.9072151
-8.6405811 0.1843641 9.4902143
-8.0063953 -0.1217721 8.7795286
-8.641942 0.19558381 9.4877644
-8.0114698 -0.1194217 8.792181
-7.9918857 -0.095869102 8.6207628
-8.7554331 0.0184054 8.9046326
-8.6426754 0.17474949 9.4847956
-4.7305913 0.0393802 9.1876802
-3.6882176 -0.015681701 10.862873
-4.9189324 0.0404354 9.1652746
-4.5836382 0.018633099 9.19104
-3.9774127 -0.066371404 9.0280876
-4.9502254 0.1330467 9.5788393
-4.7625875 0.1066942 9.6485939
-8.5320253 0.1881523 10.845164
-8.4201813 0.1731444 10.923042
-8.5304861 0.1889888 10.840891
-8.8468151 0.1190148 10.835062
-8.5185308 0.18724561 10.855874
-8.7841988 0.016833499 10.561239
-8.6740808 0.1807158 10.453242
-8.6220407 0.1986251 10.59627
-8.4511547 0.1834636 10.415861
-8.5629444 0.1967999 10.622877
-9.0858011 0.1071984 10.23258
-8.7023277 0.19605359 10.746649
-8.5632763 0.1964426 10.625746
-8.0385056 0.15037011 10.119995
-9.1025295 0.1067481 10.198139
-8.1634121 0.16342179 10.333218
-8.6734924 0.19522721 10.464551
-8.1030388 0.15143029 10.063397
-9.0982504 0.1068503 10.2072
-8.708849 -0.0028599 10.187764
-9.0517292 0.065884002 9.83708
-8.6808805 0.1878446 10.588206
-8.6669693 0.2014904 10.535235
-8.7522631 0.025135599 10.232818
-9.0417957 0.064018801 9.832221
-8.6953802 0.1541871 10.631937
-8.5200815 0.1992474 10.400172
-9.0127268 0.099689603 9.6468039
-8.6414509 0.19901741 10.564814
-7.3476877 0.090884402 9.5436125
-8.6367846 -0.044158 9.8353376
-8.606761 0.1960718 10.317348
-8.6615992 0.0112145 9.9850159
-8.0079155 0.13776819 9.8844709
-8.6478882 0.011549 8.8962183
-8.9533787 0.050243702 10.431623
-9.0793839 0.089653201 10.115064
-8.7019949 0.1853119 10.746843
-8.9722891 0.1479146 10.418036
-8.4878435 0.18805289 10.528326
-8.6392756 0.19841591 10.660808
-8.9912891 0.14446969 9.9488955
-8.3211231 0.067303903 10.159275
-7.3145075 0.0183779 9.629899
-8.7591991 0.065687597 9.9108639
-8.0492172 0.17521609 9.7159843
-8.3954935 0.1760563 10.400171
-8.2296076 0.1709155 10.373844
-9.1136007 0.1688474 10.044979
-9.0885353 0.099930502 10.078856
-8.6964445 0.1544774 10.62892
-8.7054129 0.1797933 10.719242
-8.7041779 0.1719166 10.747717
-8.3953543 0.17293219 10.567985
-8.9979753 0.1375038 9.9069719
-8.5383625 0.1928983 10.726169
-9.0371246 0.1613737 10.247304
-8.4999514 0.1868494 10.665747
-8.9704418 0.14758851 10.421931
-8.4303436 0.1806941 10.478278
-8.8464155 0.067884602 10.160035
-8.8421574 0.070862502 10.178145
-8.7262087 0.1582 10.651102
-9.0245638 0.017013401 10.013854
-9.0602102 0.18347479 10.026938
-9.0708084 0.0120454 9.9162035
-9.0629387 0.1091583 9.907176
-8.7216244 0.034106102 10.16022
-8.6596527 0.2008656 10.497401
-8.5208902 0.1982224 10.406193
-4.5784006 -0.042666599 10.044107
-4.5966396 0.0262054 10.032677
-4.6163769 0.0119547 9.5355234
-4.5829668 0.073296197 9.548624
-4.6013002 0.019908 9.7539892
-4.2826447 0.0200889 10.505722
-8.4324083 0.18359271 10.317677
-8.495636 0.2000936 10.302382
-9.0371876 0.1296832 9.8750668
-8.7248144 0.20531949 10.150136
-8.4494858 0.17774411 10.365316
-8.5937939 0.1998494 10.47685
-8.7688828 0.1108188 9.8806601
-9.0176487 0.096793599 9.622407
-8.083952 0.1564199 9.5917759
-8.6328917 0.2017684 10.061274
-8.6029825 0.2006174 10.274097
-8.5640345 0.19983029 10.429172
-7.2491517 0.0293043 9.5151062
-7.3827205 0.0100343 9.5043373
-7.290885 -0.033791199 9.5670176
-6.9942689 0.16410419 9.6396837
-7.3289652 0.1027296 9.5212078
-7.269382 0.1796806 9.4190702
-6.9393682 0.1795087 9.4094553
-7.8730316 0.1560576 9.2301331
-5.9447293 -0.2952368 9.4724293
-6.1767764 -0.21443281 9.515583
-6.2677307 -0.26041561 9.4972467
-7.2628803 -0.077431597 8.8253841
-5.9344292 -0.298329 9.4739981
-7.7966452 0.095705397 8.959341
-7.6284475 0.018580601 8.965538
-7.240355 -0.046247501 9.0655479
-8.0476093 0.16419411 9.0716887
-8.0477676 0.1642877 9.0721788
-8.0227928 0.16609441 9.222971
-7.1013851 -0.0187745 9.0119438
-6.3341289 -0.1327164 9.0330992
-7.9998674 0.1619398 9.2154713
-7.238986 0.0936165 8.8428726
-8.366828 0.18674611 9.6870928
-8.0753136 0.1072099 8.7166109
-8.7553501 0.090191402 8.8986769
-8.2493715 0.1725481 8.9771976
-8.2540846 0.1506308 8.9122734
-8.5682096 0.1998115 9.1423931
-8.5484962 0.1828299 9.1985579
-7.9468489 -0.27944931 7.0818958
-7.9562564 -0.1776502 7.1325192
-8.6807785 0.1976665 10.603693
-8.1285448 0.1430161 10.351338
-8.2941036 0.1629312 10.470733
-8.4129953 0.17503829 10.522043
-8.8479052 0.045842402 10.126731
-8.4125948 0.17454129 10.520153
-8.696166 0.1569653 10.597402
-8.3908758 0.17962269 10.407148
-8.5254316 0.19770209 10.586572
-8.4880629 0.1831416 10.698852
-8.7878466 0.0486576 10.283587
-8.532547 0.19659211 10.53941
-6.3322458 -0.0021237 9.6410999
-6.7441821 0.1746791 9.1530972
-6.8209124 0.1711235 9.1430521
-6.7257957 0.1834338 9.2489309
-6.6916108 0.1792347 9.2100677
-5.9932323 0.093517996 9.1463585
-5.4946923 0.105873 9.1217594
-6.7364392 0.1758067 9.3572216
-6.1344676 0.073255301 9.0680037
-5.9222627 -0.0142229 9.665329
-5.8840165 0.069304504 9.6439438
-5.903007 0.0376557 9.6534195
-4.9003363 0.1041702 10.590905
-8.2990332 0.1971586 9.3314447
-8.6441069 0.1406296 8.937232
-8.5941076 0.1816453 8.9685497
-8.0054245 0.027126901 8.6615677
-8.3185329 0.20254131 9.2332659
-8.5103054 0.20522849 9.2836885
-8.7810774 0.1294073 8.9090281
-8.7852364 0.089344002 8.909832
-7.9018312 0.0222755 8.9502335
-8.5566196 0.1806986 9.1504183
-8.4860182 0.19113021 10.299905
-9.0175619 0.1631877 10.844014
-8.4817581 0.1910792 10.28784
-9.0075455 0.1847716 10.83036
-8.850256 0.083161697 10.827525
-8.7702723 0.2009581 11.149663
-8.8491926 0.0824802 10.83099
-8.7239609 0.19440921 11.230546
-8.644968 -0.1009787 9.901433
-8.5309086 0.2025179 11.137163
-8.999136 0.1063938 10.685197
-8.7434101 -0.0108708 10.524117
-8.7709255 0.0187131 10.548436
-9.0386591 0.1142133 10.780779
-8.7924547 0.0091781002 10.890265
-8.7640867 0.0080505004 10.834181
-8.3578625 0.067050897 10.161283
-9.0693579 0.012198 9.8704405
-8.7067862 0.1890914 10.105518
-9.0653629 0.034201201 10.026926
-9.0581074 0.00025790001 9.8709288
-8.6600208 0.20247839 10.37999
-8.4017363 0.1740889 10.566141
-9.0907936 0.0050173998 9.8169107
-9.0604372 -0.00030680001 9.8640499
-8.7076159 0.1886795 10.10319
-8.531394 0.188337 10.844142
-8.3741493 0.1717093 10.712838
-8.4591646 0.178321 10.857984
-8.993638 0.1373916 10.534253
-9.106473 0.14973781 11.158985
-8.6261396 0.1309675 11.783576
-8.5930157 0.15752511 11.539737
-8.7966166 0.20147771 10.000444
-9.0036983 0.1735706 9.6890383
-9.0831432 0.1892308 9.299201
-9.0965166 0.1843399 9.3694019
-9.0924997 0.1073798 9.2882853
-9.081111 0.1395507 9.3228378
-8.712904 0.10282 9.6806784
-8.1868715 0.1593257 10.687732
-8.8933296 0.1987137 11.043168
-8.8654242 0.19789711 11.036619
-9.1579399 0.049262598 10.818253
-8.7127056 0.14243519 13.265594
-8.3456526 -0.0577568 12.618289
-9.2006483 0.1846984 12.947528
-9.5133791 0.074608997 12.511799
-8.9015026 0.1396483 13.005482
-8.9052067 0.15992621 13.134896
-8.4265604 0.1843556 9.0822868
-8.1969585 0.14843559 8.7509651
-8.3427801 0.208068 8.9800482
-8.0025434 0.182841 8.9549618
-8.4235067 0.2032996 8.9929924
-7.9915504 0.1173446 8.9524441
-8.313302 0.17529359 9.0084467
-8.4392147 0.2063521 9.0656624
-8.2772522 0.15345541 8.9863625
-8.4318676 0.1821166 9.1156845
-8.5239029 0.1688859 8.9557409
-8.9936228 0.165563 13.269971
-9.0183029 0.1758289 13.325297
-8.4451027 0.0029291001 13.0056
-9.3148279 0.15278509 13.104695
-8.4287233 0.097786501 12.860838
-8.9827862 0.1627651 13.454635
-9.3421507 0.1457943 13.213895
-9.4520407 -0.048591498 12.570959
-8.5977716 0.1567124 13.149298
-8.4541607 0.064988501 13.017285
-9.3599796 0.1043566 12.936244
-9.3547096 0.1171246 13.057387
-9.2399664 0.1564672 13.036634
-9.0867538 0.152748 13.324342
-8.4791985 0.065442599 13.362425
-8.5394745 0.1027647 13.381333
-8.5526466 0.1301142 13.408648
-8.5931749 0.15807921 13.13175
-9.3128958 0.1239377 12.7355
-8.9466238 0.1539699 13.289092
-9.0209112 0.017103801 13.044458
-9.0270052 0.00090029999 13.109446
-8.9963093 0.0152256 13.123428
-9.3644638 0.1530876 12.945636
-9.3617182 0.096901096 12.929964
-9.0671339 0.15272941 13.316634
-9.0697327 0.066438399 13.095215
-9.022151 -0.0117418 13.078247
-9.1218004 0.1787803 13.423079
-9.3675556 -0.064317197 12.902956
-9.3687449 0.1051169 12.915946
-9.3616724 0.1602557 12.996517
-9.362689 0.1628757 13.001615
-9.0225878 -0.069013402 13.095372
-9.285387 0.14884721 13.280428
-8.7087822 0.19458281 11.552649
-8.9450083 0.18849669 11.487477
-8.8572073 -0.026396999 10.850249
-8.5939188 0.1571528 11.545472
-8.9642735 0.1572412 13.288404
-8.5761662 -0.32972261 10.884042
-9.0708685 0.090086997 10.021595
-8.6967316 0.15475351 10.62815
-8.6430254 0.2011943 10.565306
-8.4277954 0.1814025 10.47354
-8.061305 0.1490974 10.149203
-8.734621 0.1706104 10.648807
-8.4786806 0.1893246 10.370382
-8.0358286 0.1499958 10.11321
-8.4062271 0.175612 10.642688
-8.7247572 0.1675733 10.653468
-8.6496649 0.1529547 10.091148
-9.0430422 0.19210181 9.3478985
-9.0849771 0.1333257 9.1838446
-8.6404295 0.1789147 10.093957
-9.0481873 0.1213289 9.388834
-8.0803385 0.0398711 8.9227638
-7.8053284 -0.1494215 6.8983994
-8.5455828 0.1879672 9.1458178
-7.8557754 -0.26777229 7.0302691
-7.9532394 -0.28216451 7.0852909
-7.7936974 -0.1557488 6.8637776
-7.9151664 -0.1944859 6.9011116
-7.9955077 0.131239 8.7892437
-8.0679579 0.1733748 8.7359152
-8.7573948 0.0882084 8.8900652
-8.7222013 0.1571096 10.646977
-9.086607 0.1012529 10.086729
-9.0568428 0.096252501 9.9667387
-8.6784687 0.18758249 10.570777
-8.2516232 0.071775198 10.172466
-7.7970371 0.095982 8.959734
-8.0202999 0.0614159 8.8868656
-8.0367346 -0.063329503 7.2922273
-8.0084429 0.030727901 8.8029032
-8.0828266 -0.070689403 7.3151922
-8.0425034 -0.067038096 7.3221035
-8.0047455 0.15619411 9.213172
-8.0159874 0.028368801 8.7484837
-8.0215101 0.083699398 8.8900585
-8.4218082 0.17788909 10.563883
-8.6795883 0.1619754 10.522643
-8.6813545 0.1980859 10.607374
-8.6338749 0.19842251 10.879236
-8.4818773 0.1786634 10.840992
-8.6668358 0.20048539 10.687243
-8.4102468 0.175534 10.516806
-8.4533882 0.1783604 10.746013
-8.8300629 0.054393999 10.222716
-7.9774489 0.1443976 10.319236
-8.9739332 0.14707661 10.411935
-8.3556852 0.1716446 10.621623
-8.432292 0.1750823 10.592102
-8.0473757 0.1693594 10.326466
-9.0055523 0.18227211 10.795144
